ply
format ascii 1.0
comment Created by meshio v5.3.4, 2023-04-08T16:43:55.070278
element vertex 100
property double x
property double y
property double z
end_header
0.45671956443141315 0.3992415435190291 0.19494349010211043
0.12277177728191657 0.09723299724880352 0.6057087982481103
0.9468144427903458 0.19916076186666098 0.0249770199077598
0.23941068725451253 0.39202171342150405 0.8535649133411403
0.5346832250671945 0.31448737019235473 0.8659356141991467
0.6977129429520312 0.7564358350253042 0.12258933305653541
0.014040063396025815 0.36451316420939384 0.4690667771007404
0.04885768448087535 0.3238852989432194 0.018051334763491633
0.3933453531914314 0.2579388624909893 0.995335258442291
0.6085378843882052 0.9031266175122568 0.8899361709996967
0.7128255906327963 0.7295047094844389 0.3938234514849642
0.4202510034321403 0.0783132667653339 0.4855943501568022
0.5941171656126961 0.6358344663754635 0.033380385959323466
0.44895337184553097 0.3637003334613792 0.29111757880205236
0.27678181128371127 0.5343199735188995 0.18937837635360721
0.3246775213916605 0.16461217794373373 0.9452249221375287
0.02915114645622885 0.6347083709827821 0.5784825112246903
0.47776984645962284 0.8470812007925629 0.14587899712367358
0.23991279901544393 0.06564456993708845 0.22166473847096702
0.860238128413331 0.6747983370552164 0.14114116188284243
0.26870308470999993 0.9266145710301662 0.4754422420748511
0.29598009487700483 0.9700241786131494 0.46730347522469706
0.7359548771618352 0.695388224594705 0.6190373709871964
0.9703884122630722 0.8622543651097251 0.22367024098304022
0.8732560465548003 0.716158385733916 0.6657353766702578
0.344653472414995 0.1629259498563871 0.7889467023422291
0.06385344877472032 0.8760583385927423 0.6288903933510038
0.8785852007735422 0.8907813536706406 0.5478207488341771
0.34566521471130096 0.20851093333196302 0.5524482816304014
0.829630844929309 0.5656460043349513 0.40819650031122423
0.3002019760419177 0.5817661413552637 0.9493817609283566
0.172908891493746 0.5342656666415379 0.7267068391835932
0.4283602188715593 0.3040350267621229 0.7779744976989008
0.8724784844589175 0.08503855889163425 0.1266206989776728
0.4143885453896067 0.09699301649938563 0.9071559556945119
0.3196059689205284 0.22286589657843703 0.48727343803700074
0.23693639329301885 0.2638681809257907 0.8201688090847172
0.2486565559005458 0.7831275945951276 0.11369650136146858
0.6560690807177432 0.05809512830852592 0.7842134948784265
0.36680855330392603 0.006852054456102152 0.7809562632580744
0.41083181398844226 0.4430351721502177 0.4874200234229099
0.4209212451251071 0.6814909991726514 0.6223221527574958
0.22291257867797698 0.5037072283885048 0.820525082392512
0.3877004792041928 0.6735335470775539 0.9098746583041207
0.7081927227748663 0.5492724150526909 0.7718031033774793
0.27473554884001117 0.0956184605082776 0.876292216016007
0.1961780210087356 0.43382005759841824 0.4485008942090808
0.8375467863063345 0.06044980017996093 0.0540175032496899
0.6029897070436808 0.6094124416180684 0.17397672431694022
0.44222253118511734 0.5542241559246455 0.24152288363215013
0.21999847298424202 0.9441268478346057 0.9376288189278457
0.5809294721506515 0.4289258133759398 0.6441604130827195
0.7645344069083044 0.5639141291855273 0.47971804452707845
0.8220810539697049 0.5159950244004451 0.6177233181051187
0.17618290745104292 0.7527253484024503 0.7470385842631003
0.9106009363059641 0.12982656434659368 0.7979346683353434
0.8320319365024437 0.8756224249141552 0.12277785657335727
0.98122831287846 0.35266576331452326 0.7606865687246277
0.3199971664021436 0.5700614347187599 0.13822866714960258
0.5429633147527919 0.7087926727658661 0.8776097762523214
0.38980760108082924 0.38875946536975636 0.49308683174370993
0.6680904369874616 0.6992908903505723 0.5968482350683875
0.20849998077293186 0.9747290994651986 0.4229375016589749
0.14468584574196763 0.8600982949622639 0.5476959767449838
0.5030863872500261 0.7515755986959499 0.001014573866031765
0.6591804037495372 0.6723808289855877 0.06333066189020309
0.4892286497985463 0.5961300557209125 0.9282685248181458
0.8678129818780744 0.5915248676919517 0.7535513847817183
0.31167097095441176 0.990971067489559 0.352168052598848
0.06441914659583325 0.21272985282844026 0.2689262262889579
0.06849375658968504 0.3189083990449959 0.7193953070031394
0.8354536184212621 0.5865196959167825 0.5484170560682771
0.3056210627688105 0.4354041211470294 0.3670697377288161
0.7447790930502024 0.49404553458129774 0.9442700619584669
0.916686745356911 0.43272979659728983 0.13547753899754167
0.4384304000788227 0.66011583266358 0.7730159579407864
0.458853172462365 0.39071128706949854 0.8798627351284509
0.12142576190257592 0.37390545654727825 0.6050859440905774
0.5525732981755972 0.7192077540012543 0.41426009048351187
0.13868324105402896 0.26184005074130523 0.44142501317764216
0.5198907802814556 0.997043043990671 0.025658482654695614
0.41956642831001967 0.5015389019445206 0.7031121583757671
0.020664963243283707 0.13559912783500683 0.8261164983695594
0.5077525934004214 0.6456182206917921 0.12477047997383672
0.6693965630939059 0.012207446321470417 0.2711173505781195
0.8154470909987415 0.22735804284830918 0.9130419671777659
0.10706181560075678 0.08002920536323699 0.1582570325720437
0.4861958956780732 0.27804331781571356 0.36394107586833313
0.6781506293942147 0.44016399527553896 0.1527248536947683
0.2862728157881942 0.6196263971034188 0.8199477695223748
0.8230355247646058 0.624168211124677 0.9970828836766036
0.33301184080329527 0.3209855690350112 0.294805063071474
0.783353461517622 0.030493676328772423 0.7032451907858394
0.28031696214310065 0.06176491775829562 0.07690967325013676
0.1949325872788923 0.9008137544174046 0.47377198766340956
0.7169594465614103 0.4150472012424071 0.8000597244451713
0.11850670612161174 0.6496698587070135 0.4107979471356793
0.9695216676789027 0.9685296990058588 0.8291293441268993
0.3699130572523216 0.9366124035571111 0.14088340732505678
0.12602378181185492 0.14601630219652617 0.3529181987839689
